# .PCD v0.7 - Point Cloud Data file format
VERSION 0.7
FIELDS x y z intensity
SIZE 4 4 4 4
TYPE F F F F
COUNT 1 1 1 1
WIDTH 1124
HEIGHT 1
VIEWPOINT 0 0 0 1 0 0 0
POINTS 1124
DATA ascii
17.411377 -6.5969915 -0.29637796 0.19999996
17.813299 -6.6235495 -0.30037224 0.19999996
18.209105 -6.6200218 -0.30644131 0.19999993
18.596134 -6.6437607 -0.30891147 0.19999997
18.998896 -6.6028771 -0.31578621 0.19999997
19.373299 -6.591711 -0.31875655 0.19999997
19.769547 -6.5695105 -0.32133687 0.20000003
20.184494 -6.6066699 -0.33535907 0.20000002
20.573055 -6.5952463 -0.3336623 0.20000002
20.984245 -6.6025262 -0.34777334 0.19999997
21.403358 -6.5928416 -0.34864187 0.2
21.825169 -6.5661635 -0.35120508 0.20000002
22.195616 -6.603344 -0.36644658 0.19999999
22.621239 -6.5889401 -0.36945716 0.19999996
23.002592 -6.6032171 -0.37728935 0.2
23.427933 -6.5901475 -0.38522467 0.19999999
23.846182 -6.6483827 -0.38942194 0.20000003
24.225693 -6.5903735 -0.39393604 0.20000003
24.521902 -6.5893264 -0.39666125 0.2
37.889172 -6.7580733 -0.38955855 2.6499999
38.271973 -6.6187806 -0.37584969 1.5999998
38.568722 -6.6507401 -0.31812164 1.9818187
38.987564 -6.6110082 -0.24751323 1.1800003
39.306587 -6.5963001 -0.15651043 0.57692307
39.789345 -6.6602845 -0.088915706 0.20000003
40.133522 -6.5998845 -0.097693428 0.20000002
40.562416 -6.6048827 -0.10815869 0.20000002
41.000977 -6.6213164 -0.11640207 0.20000003
41.402103 -6.5537443 -0.12103391 0.20000002
41.792458 -6.5474038 -0.12224325 0.20000003
42.24633 -6.5771914 -0.12825386 0.20000003
42.663132 -6.5667672 -0.13151994 0.20000003
42.967476 -6.5951834 -0.13580841 0.20000002
43.376026 -6.5791759 -0.14236733 0.20000002
43.772419 -6.6134205 -0.14829795 0.20000003
44.217949 -6.6091409 -0.15468946 0.20000002
44.574173 -6.6574297 -0.15589076 0.20000002
44.964466 -6.6407862 -0.16723597 0.20000003
45.391144 -6.6219363 -0.18068288 0.20000003
45.824829 -6.6353488 -0.18736315 0.20000003
46.1898 -6.4920301 -0.19077893 0.20000002
46.611771 -6.6243153 -0.19507031 0.20000003
47.063744 -6.5633345 -0.13750416 0.59199995
47.328053 -6.5245109 -0.063930713 3.4666665
47.782944 -6.4997063 -0.070660129 0.20000002
48.197792 -6.5636096 -0.074549697 0.20000002
48.540874 -6.5878015 -0.089633457 0.20000003
49.014881 -6.6819649 -0.10006903 0.20000002
49.422466 -6.5996437 -0.20087749 1.8333334
49.782475 -6.5530066 -0.24172771 0.20000002
50.27137 -6.6740789 -0.25339407 0.2
50.550739 -6.5412402 -0.26595986 0.20000002
50.957317 -6.555398 -0.26535785 0.20000002
51.38829 -6.6104927 -0.27737862 0.20000003
51.723186 -6.6392636 -0.27839881 0.20000002
52.224789 -6.588491 -0.29595304 0.20000003
52.636299 -6.7019644 -0.29701626 0.2
52.979359 -6.6022987 -0.29739556 0.2
53.41346 -6.6344104 -0.30680513 0.20000002
53.799263 -6.6472354 -0.31310245 0.20000002
54.158733 -6.6375089 -0.31423846 0.2
54.536217 -6.7656302 -0.32702792 0.2
74.110695 -6.7400632 -0.16366182 0.2
74.429054 -6.7894745 -0.10379542 0.2
5.8541946 -6.102757 -0.050346639 0.20000002
6.158339 -6.1948309 -0.057741709 0.20000003
6.559144 -6.1627483 -0.092137381 0.20000003
7.007319 -6.2400818 -0.09774182 0.20000002
7.4299035 -6.1817894 -0.1066145 0.20000003
7.7977433 -6.2199135 -0.11789118 0.2
8.166379 -6.1746373 -0.12683168 0.20000002
8.5939903 -6.2205596 -0.13001306 0.19999999
9.0244808 -6.2228909 -0.14483882 0.19999999
9.424264 -6.2486501 -0.15181459 0.19999999
9.7662821 -6.2354865 -0.15064603 0.52666658
10.227375 -6.225275 -0.16111848 0.2
10.608281 -6.2136617 -0.18505488 0.2
11.01092 -6.1988378 -0.19300674 0.19999994
11.413102 -6.1870694 -0.19828115 0.20000002
11.789416 -6.2519126 -0.20390896 0.2
12.217956 -6.1782742 -0.20532691 0.19999999
12.628767 -6.1722121 -0.21241166 0.19999994
13.02791 -6.1948972 -0.21765256 0.19999994
13.405091 -6.2497683 -0.22626862 0.19999999
13.826423 -6.1570363 -0.22934484 0.2
14.223804 -6.2044902 -0.23833898 0.19999993
14.618995 -6.2074084 -0.24551383 0.2
15.023374 -6.1675305 -0.25305161 0.19999996
15.405779 -6.2300043 -0.25576577 0.20000002
15.825047 -6.1658783 -0.26858306 0.19999999
16.190969 -6.1803403 -0.2695559 0.19999993
16.583866 -6.1832581 -0.27907911 0.20000002
16.99259 -6.2188683 -0.28800893 0.19999999
17.43186 -6.2031817 -0.29913315 0.19999993
17.803703 -6.2282629 -0.30202922 0.19999996
18.198475 -6.1750975 -0.31206983 0.19999993
18.602407 -6.1928711 -0.31092414 0.19999996
19.00106 -6.1866517 -0.31694737 0.19999999
19.395531 -6.1906891 -0.31872714 0.19999997
19.80587 -6.2198992 -0.32482582 0.19999996
20.204273 -6.2343349 -0.33171663 0.19999994
20.59993 -6.1889396 -0.3381739 0.19999994
20.997686 -6.2062993 -0.3415809 0.19999999
21.40941 -6.2101121 -0.35037932 0.2
21.806612 -6.2360492 -0.35965839 0.19999997
22.214973 -6.1753135 -0.36735997 0.19999999
22.614267 -6.2059517 -0.37161234 0.20000002
23.000603 -6.1819801 -0.37798163 0.19999999
23.369152 -6.203229 -0.38662452 0.2
23.798109 -6.1856928 -0.38832849 0.20000003
24.208788 -6.2284989 -0.39445534 0.20000002
24.585258 -6.1531448 -0.3941873 0.2
26.560139 -6.1491456 -0.39667344 0.2
38.762638 -6.2339039 -0.38883612 0.2
39.15836 -6.2754426 -0.25195402 1.2888894
39.362995 -6.1886916 -0.19673634 0.88372153
39.797337 -6.2072005 -0.11120949 0.20000003
40.216827 -6.1662974 -0.10126564 0.20000003
40.605179 -6.1949492 -0.10080218 0.20000003
41.034809 -6.2141528 -0.1101224 0.20000003
41.44379 -6.1956024 -0.11652084 0.20000003
41.842049 -6.156672 -0.1229271 0.20000002
42.276699 -6.1995211 -0.12833911 0.20000003
42.582256 -6.2570662 -0.13097437 0.20000002
43.063873 -6.1489196 -0.13917607 0.2
43.402493 -6.1165924 -0.1450346 0.20000002
43.790531 -6.2238545 -0.15349421 0.2
44.198277 -6.1514587 -0.15151334 0.20000002
44.619949 -6.1794734 -0.16525562 0.20000003
45.015633 -6.1622915 -0.17024103 0.20000002
45.389904 -6.2442255 -0.17723431 0.20000002
45.8009 -6.16436 -0.17947479 0.20000003
46.224167 -6.1900187 -0.18557647 0.20000002
46.566315 -6.210597 -0.19408295 0.20000002
47.057255 -6.2191777 -0.12929162 1.6700001
47.4021 -6.1581807 -0.13782924 0.20000002
47.758701 -6.1737223 -0.15025142 0.20000003
48.249065 -6.1092987 -0.21533561 0.20000002
48.645229 -6.2217717 -0.20650236 0.2
49.039417 -6.206131 -0.22701198 0.20000003
49.439125 -6.1135621 -0.23177628 0.20000002
49.795086 -6.1446495 -0.24291658 0.20000003
50.206482 -6.2017026 -0.25304005 0.20000003
50.552883 -6.2126169 -0.26531413 0.20000002
50.941818 -6.2343373 -0.26420084 0.20000003
51.364468 -6.2469172 -0.28361139 0.20000002
51.782776 -6.2293601 -0.29128942 0.2
52.115524 -6.2234697 -0.29708448 0.20000002
52.556801 -6.1932645 -0.30242398 0.20000003
53.025791 -6.1697054 -0.30061182 0.20000003
53.398212 -6.1644077 -0.30358309 0.20000002
53.746033 -6.2872934 -0.3082605 0.2
54.036221 -6.3642335 -0.30008349 0.2
67.244408 -6.0603848 -0.31420475 0.2
5.1091986 -5.676929 -0.030947128 0.2
5.3792076 -5.7384477 -0.034977049 0.20000003
5.7925754 -5.8144145 -0.062209133 0.2
6.1986279 -5.7936559 -0.084067203 0.20000002
6.5989718 -5.8273301 -0.096943125 0.20000003
7.0147409 -5.8157744 -0.10899486 0.20000002
7.3951979 -5.7813959 -0.11561628 0.19999999
7.7606187 -5.7773418 -0.12078437 0.2
8.2254772 -5.7761383 -0.13151991 0.19999993
8.6059542 -5.7699394 -0.14063115 0.19999993
9.0082588 -5.8226638 -0.14992283 0.2
9.4064045 -5.8024788 -0.15993489 0.19999993
9.7669315 -5.8394256 -0.1688025 0.19999999
10.174833 -5.7787976 -0.17582731 0.19999996
10.622266 -5.8221159 -0.18381929 0.2
11.030719 -5.7935095 -0.19227213 0.19999997
11.374801 -5.8216968 -0.19688813 0.19999997
11.814312 -5.8314557 -0.20244685 0.19999993
12.185166 -5.8198552 -0.21061772 0.2
12.624054 -5.7912917 -0.214615 0.19999996
12.996357 -5.8104897 -0.22096284 0.19999997
13.434071 -5.8564534 -0.22753067 0.20000003
13.803831 -5.7786183 -0.23341894 0.19999996
14.178405 -5.7898364 -0.23638484 0.19999993
14.575071 -5.7674756 -0.24246635 0.19999997
14.985645 -5.8276296 -0.24641424 0.19999997
15.402435 -5.7930112 -0.2571643 0.19999996
15.818746 -5.7558322 -0.26902339 0.19999996
16.199869 -5.823832 -0.2695176 0.19999994
16.587894 -5.8114238 -0.27812484 0.19999996
16.963116 -5.79737 -0.2913205 0.2
17.400627 -5.7523952 -0.29841587 0.19999994
17.811892 -5.8474851 -0.29970893 0.19999993
18.172462 -5.8168859 -0.30277878 0.19999997
18.639559 -5.8254895 -0.30581501 0.2
19.018484 -5.8112435 -0.31162265 0.2
19.409237 -5.8177915 -0.32356352 0.19999997
19.804928 -5.7966356 -0.32071459 0.19999996
20.191082 -5.8155875 -0.33145329 0.20000003
20.621639 -5.8130002 -0.34163386 0.20000002
21.009972 -5.7941527 -0.34267724 0.20000003
21.398148 -5.8135815 -0.3542279 0.19999999
21.821444 -5.8173428 -0.36223003 0.2
22.155668 -5.8014183 -0.36691946 0.20000002
22.598473 -5.7724905 -0.37131199 0.20000003
22.950537 -5.8079758 -0.37873459 0.20000003
23.389854 -5.7473598 -0.38357612 0.20000003
23.806646 -5.8348665 -0.38896993 0.20000003
24.153313 -5.88766 -0.39657769 0.2
24.489065 -5.7512851 -0.39870638 0.2
25.401369 -5.636569 -0.38250428 0.2
39.833893 -5.9073148 -0.24333352 0.83225822
40.203274 -5.7668238 -0.229378 1.3307698
40.536633 -5.7284622 -0.1562766 0.20000003
40.906391 -5.8806863 -0.10727914 0.2
41.392715 -5.8197713 -0.11241391 0.20000003
41.804234 -5.8124628 -0.12039909 0.20000003
42.174244 -5.7865591 -0.12578364 0.20000003
42.629616 -5.8208523 -0.12896417 0.20000003
42.979679 -5.8112407 -0.13213567 0.20000003
43.451691 -5.7744584 -0.1402178 0.20000003
43.843273 -5.8476329 -0.14707462 0.20000002
44.122986 -5.9080186 -0.15592758 0.2
44.573994 -5.7547178 -0.16384369 0.20000003
44.942791 -5.7355752 -0.16935197 0.20000002
45.340763 -5.7695131 -0.17388111 0.20000003
45.793449 -5.7548676 -0.17737961 0.20000002
46.191765 -5.821785 -0.18820885 0.20000002
46.583351 -5.7874699 -0.19062221 0.20000002
46.960835 -5.8362956 -0.19703762 0.2
47.405106 -5.8131461 -0.2045659 0.20000003
47.79689 -5.8340602 -0.21222252 0.20000002
48.168915 -5.8211317 -0.21524222 0.20000003
48.572887 -5.8256464 -0.22178112 0.20000003
49.023483 -5.7997618 -0.22653332 0.20000002
49.474033 -5.8208947 -0.2410823 0.20000002
49.779797 -5.8658147 -0.24011481 0.20000002
50.232609 -5.8773289 -0.25565466 0.20000003
50.555199 -5.8048062 -0.26628548 0.20000002
51.00272 -5.8586226 -0.26703146 0.20000003
51.388706 -5.8406696 -0.27254888 0.20000003
51.781425 -5.8567438 -0.2803849 0.20000002
52.185299 -5.792419 -0.29182422 0.20000003
52.606995 -5.8636384 -0.29451379 0.20000003
52.8615 -5.898181 -0.28830481 0.2
66.619392 -5.7678738 -0.39667982 0.2
67.036858 -5.8059235 -0.14828973 3.4666665
3.2602439 -5.2114978 -0.0037636722 0.2
3.9758718 -5.2738781 -0.022989014 0.2
4.2225761 -5.2924123 -0.034996461 0.20000003
4.5803518 -5.3493085 -0.03985614 0.20000003
4.9650831 -5.3957758 -0.05485386 0.19999999
5.3714056 -5.3862076 -0.071586177 0.20000003
5.7782726 -5.4359498 -0.083343253 0.20000003
6.2263999 -5.4031715 -0.0998592 0.20000002
6.5919476 -5.386095 -0.10579824 0.2
7.0227532 -5.3899732 -0.1122182 0.19999999
7.4180565 -5.4129224 -0.11991043 0.20000002
7.7911534 -5.367919 -0.12606336 0.19999997
8.2025814 -5.3898458 -0.13649814 0.19999997
8.6155128 -5.3840284 -0.15105139 0.20000002
8.982481 -5.4403195 -0.15617684 0.19999996
9.3966198 -5.3976536 -0.16431722 0.19999997
9.7788153 -5.3983173 -0.1688883 0.19999997
10.241728 -5.4380369 -0.17804793 0.20000002
10.630754 -5.4720964 -0.18635184 0.2
10.988537 -5.3810415 -0.19035786 0.20000002
11.418089 -5.3826113 -0.19469443 0.20000002
11.798094 -5.4175344 -0.19779889 0.19999997
12.221565 -5.4039874 -0.20589454 0.19999997
12.595555 -5.374949 -0.21413134 0.19999996
13.015542 -5.3952637 -0.2198109 0.19999999
13.416933 -5.4230309 -0.22906238 0.19999994
13.793423 -5.3908339 -0.22939654 0.19999999
14.194943 -5.3852553 -0.23950693 0.20000002
14.606534 -5.4028282 -0.24423799 0.19999999
14.987395 -5.3828106 -0.24825245 0.19999996
15.41669 -5.4275637 -0.25755444 0.19999996
15.789399 -5.3754339 -0.26700178 0.19999994
16.19149 -5.410274 -0.2733548 0.19999994
16.586153 -5.4566646 -0.27975318 0.2
17.000189 -5.4069738 -0.29076207 0.2
17.40613 -5.3803997 -0.29887852 0.2
17.826471 -5.4147282 -0.29780877 0.19999996
18.246935 -5.3460941 -0.30460939 0.20000003
18.617743 -5.3968725 -0.30094114 0.20000002
19.004744 -5.383348 -0.31422296 0.20000003
19.431566 -5.4165459 -0.31853417 0.20000003
19.801973 -5.3838134 -0.32583666 0.2
20.202408 -5.4179454 -0.33103606 0.20000003
20.657478 -5.3895149 -0.34033105 0.20000002
20.995342 -5.4162207 -0.34404999 0.20000002
21.375652 -5.4357305 -0.35195211 0.2
21.798624 -5.374094 -0.36329815 0.19999999
22.210594 -5.4013529 -0.37445521 0.19999997
22.614914 -5.3965845 -0.37867886 0.20000003
22.945993 -5.3741369 -0.38148776 0.20000003
23.436171 -5.3997722 -0.3857069 0.20000003
23.81328 -5.3921661 -0.39107695 0.20000003
24.167036 -5.4464102 -0.39346108 0.20000002
24.431957 -5.5379982 -0.39613241 0.2
40.722393 -5.5652094 -0.20907752 1.5999998
41.046173 -5.497035 -0.18318526 0.20000003
41.414257 -5.4193201 -0.17848037 3.0000002
41.793457 -5.3546968 -0.15835495 0.20000003
42.214481 -5.3445549 -0.1211367 0.20000003
42.589085 -5.415977 -0.12767878 0.20000003
42.965496 -5.3820553 -0.12990659 0.20000002
43.444206 -5.393043 -0.14272603 0.20000003
43.817371 -5.4197912 -0.14802405 0.20000003
44.199287 -5.4753342 -0.15584055 0.20000002
44.594334 -5.3936729 -0.15506724 0.20000002
45.012241 -5.3607092 -0.16547723 0.20000002
45.415218 -5.4670286 -0.17312956 0.20000002
45.775982 -5.4377441 -0.1793478 0.20000003
46.131424 -5.4265003 -0.18750381 0.20000002
46.597401 -5.3871427 -0.19782044 0.20000003
46.961613 -5.3472867 -0.20145738 0.20000003
47.387638 -5.3953061 -0.20241471 0.20000003
47.847305 -5.4150105 -0.20920281 0.20000002
48.210381 -5.3854418 -0.21018164 0.20000002
48.591228 -5.4046578 -0.2201498 0.20000002
48.991547 -5.3855877 -0.22800346 0.20000003
49.363495 -5.4157047 -0.23026797 0.20000002
49.844894 -5.4464903 -0.24404262 0.20000003
50.202477 -5.4151917 -0.25353691 0.20000003
50.591515 -5.4077463 -0.25977606 0.20000003
51.018463 -5.4140677 -0.26968077 0.20000003
51.373421 -5.3914237 -0.27234083 0.20000003
51.783199 -5.4833341 -0.27878284 0.20000003
52.297321 -5.5756707 -0.28096655 3.4666665
66.721992 -5.3980274 -0.30490258 1.8333334
66.875381 -5.3275843 -0.13986847 0.2
-1.7658849 -4.8335614 -0.0084917769 0.2
-1.0621674 -4.9342017 -0.0021200811 0.2
-0.61170733 -4.8409748 -0.0121923 0.2
-0.26905808 -4.8803792 -0.007447999 0.2
0.19973058 -4.9231215 -0.0091174068 0.2
0.63518912 -4.8978543 -0.0098000756 0.20000002
1.0088761 -4.9847541 -0.0092479717 0.20000002
1.4353429 -4.9350467 -0.015145432 0.20000003
1.8551345 -5.014432 -0.014609789 0.20000003
2.2182779 -4.9929237 -0.01778904 0.20000003
2.609525 -5.0251498 -0.026793221 0.20000003
3.0288808 -5.0072136 -0.032399423 0.19999999
3.4153309 -5.0475631 -0.033409785 0.20000003
3.8152483 -5.0189247 -0.046118047 0.2
4.2109938 -5.0081339 -0.050847992 0.20000003
4.5697937 -4.9785805 -0.062097173 0.20000002
5.0365753 -4.9857383 -0.072691493 0.20000003
5.4055362 -4.9990497 -0.080647416 0.2
5.8229904 -4.9853983 -0.091941699 0.20000002
6.1690392 -5.0143142 -0.099176608 0.19999999
6.5987835 -4.9908338 -0.10549903 0.19999993
7.0157089 -5.0317798 -0.11351782 0.19999999
7.4101605 -5.0133257 -0.12061722 0.19999996
7.8301744 -4.9631467 -0.13459145 0.20000003
8.184907 -4.9953694 -0.14034894 0.19999997
8.6461668 -4.9939866 -0.15275228 0.20000002
9.005497 -5.0168891 -0.15687622 0.19999997
9.4301271 -5.0066996 -0.16253039 0.19999993
9.7866764 -4.9744635 -0.16545764 0.2
10.246214 -4.9845104 -0.17659536 0.20000003
10.627288 -4.9893441 -0.18282267 0.19999996
11.010237 -5.0163536 -0.18906319 0.20000003
11.394895 -4.9748054 -0.19349527 0.19999999
11.834472 -4.9889941 -0.20064847 0.20000003
12.190057 -5.0035763 -0.20853053 0.19999993
12.60604 -4.9954963 -0.2123684 0.19999997
13.003867 -4.9777522 -0.21881734 0.19999997
13.387011 -4.9992852 -0.22361849 0.19999997
13.78454 -5.0062647 -0.23017666 0.19999997
14.167246 -5.0217328 -0.23552081 0.19999996
14.598046 -4.9931583 -0.24066623 0.19999993
15.034399 -5.0077276 -0.25259361 0.19999996
15.401063 -5.0004644 -0.25977573 0.19999994
15.823149 -4.9649224 -0.2689096 0.19999993
16.229656 -5.0048895 -0.27736431 0.19999994
16.593838 -5.063838 -0.28380156 0.19999994
17.015358 -5.0164471 -0.29477414 0.20000003
17.390772 -5.0224004 -0.29809186 0.2
17.748528 -4.9905052 -0.29991922 0.19999999
18.202852 -4.9834714 -0.29805762 0.19999993
18.598349 -5.0199528 -0.30833149 0.19999994
18.984329 -5.0022311 -0.30729619 0.19999999
19.376177 -4.9936996 -0.31683528 0.19999996
19.810251 -5.0088973 -0.32199177 0.19999996
20.16819 -4.9667768 -0.33536339 0.19999999
20.592833 -4.9958334 -0.34415552 0.19999997
20.991043 -5.0244331 -0.35092658 0.19999996
21.403822 -4.9937549 -0.35741451 0.19999996
21.787064 -5.0528541 -0.36761907 0.19999999
22.186581 -4.9824328 -0.37043756 0.20000003
22.591667 -4.9814553 -0.37523365 0.20000003
22.980223 -5.0141535 -0.38044545 0.20000003
23.405567 -4.9408741 -0.38709837 0.20000003
23.778519 -4.9711328 -0.39097714 0.20000003
24.203196 -4.970418 -0.39804196 0.2
42.224045 -5.1573043 -0.17859347 0.2
42.639477 -5.1025739 -0.18384305 1.1799998
42.998211 -5.0570846 -0.18408109 0.66666663
43.42783 -4.9878469 -0.18789603 0.74444437
43.80146 -4.9549012 -0.17858721 0.20000003
44.161331 -5.0187097 -0.16811286 0.20000003
44.582027 -4.9069386 -0.15086634 0.20000002
45.008095 -4.9439211 -0.16412741 0.20000003
45.428848 -5.0117588 -0.17108224 0.20000003
45.783825 -5.0342479 -0.17892638 0.20000003
46.195118 -5.0312362 -0.18405627 0.20000002
46.603859 -5.0021372 -0.19715832 0.20000003
47.032749 -4.9875321 -0.20230322 0.20000003
47.416847 -5.0116425 -0.20685349 0.20000003
47.783916 -4.9953341 -0.21567661 0.20000003
48.178188 -4.996613 -0.21866795 0.20000003
48.579288 -4.9869962 -0.21989104 0.20000003
49.011562 -4.9666781 -0.22738142 0.20000003
49.398548 -4.9574289 -0.23110545 0.20000003
49.793434 -4.9727802 -0.24602151 0.20000003
50.181301 -5.0032821 -0.24634983 0.20000003
50.591328 -4.9913774 -0.26358378 0.7157895
50.939095 -5.0530276 -0.26040277 0.20000002
51.364967 -5.1640682 -0.29295909 0.2
59.90065 -4.8765302 -0.20630731 0.2
66.67646 -5.1885614 -0.29384518 0.2
67.042725 -4.9783144 -0.14680608 0.2
67.30661 -4.8382244 -0.040129192 0.2
-2.4347847 -4.5304079 -0.011662263 0.2
-2.223079 -4.6245418 -0.0038737741 0.2
-1.7215025 -4.6822553 -0.0034861446 0.2
-1.3577906 -4.5466089 -0.011433203 0.2
-1.1152102 -4.6710668 -0.0023823003 0.2
-0.62486213 -4.5580163 -0.0058657075 0.20000003
-0.19442883 -4.5772562 -0.0076596807 0.20000003
0.16005602 -4.5726619 -0.01326008 0.20000003
0.60058641 -4.5128031 -0.015108169 0.20000003
0.99963701 -4.6307697 -0.014352652 0.20000003
1.4125171 -4.5881886 -0.017890139 0.20000003
1.7881594 -4.6018748 -0.023915887 0.20000002
2.2666416 -4.6157784 -0.029763956 0.2
2.5756655 -4.6178946 -0.028698644 0.20000003
2.9692705 -4.5858183 -0.034801956 0.20000003
3.3766747 -4.6094375 -0.045125596 0.20000003
3.8304348 -4.5753736 -0.048262801 0.20000002
4.1874828 -4.6318684 -0.058317289 0.20000003
4.6097503 -4.5639734 -0.068421096 0.19999997
5.0053802 -4.6403828 -0.07550437 0.19999999
5.4080553 -4.6031513 -0.082860216 0.20000002
5.8140817 -4.576087 -0.097792193 0.2
6.1986594 -4.611733 -0.1024759 0.19999994
6.6229038 -4.5935631 -0.11304083 0.19999997
7.0381179 -4.6228523 -0.11906637 0.2
7.4110918 -4.6143241 -0.12399391 0.19999996
7.792943 -4.6316166 -0.13518327 0.2
8.1973963 -4.6130056 -0.14577721 0.2
8.6150322 -4.6236405 -0.14955218 0.19999994
9.0090294 -4.5582552 -0.15375002 0.19999997
9.4091892 -4.6245275 -0.15626439 0.19999996
9.8149252 -4.6485772 -0.16726899 0.20000002
10.239888 -4.6409516 -0.17633389 0.19999997
10.571825 -4.6044803 -0.18048692 0.19999996
11.018594 -4.620235 -0.1846111 0.2
11.406732 -4.58005 -0.19689131 0.19999999
11.799596 -4.6130857 -0.20220618 0.19999999
12.208696 -4.5775328 -0.20800981 0.19999999
12.616184 -4.5840383 -0.21123993 0.19999996
12.992002 -4.5975957 -0.21756437 0.20000002
13.403084 -4.5898972 -0.22462757 0.19999997
13.798739 -4.5816522 -0.2291142 0.19999993
14.207744 -4.6080565 -0.23762293 0.19999999
14.588425 -4.5917363 -0.24501006 0.19999994
15.02582 -4.5753002 -0.25050741 0.19999997
15.395421 -4.6136131 -0.26298025 0.19999996
15.786527 -4.5786719 -0.26583025 0.19999999
16.208815 -4.5814481 -0.27427691 0.19999996
16.596733 -4.5945048 -0.28201744 0.19999997
16.973463 -4.6387157 -0.29519144 0.20000003
17.396646 -4.5611997 -0.29678625 0.19999996
17.768335 -4.6179676 -0.29458544 0.2
18.189974 -4.5984421 -0.29853058 0.19999999
18.572931 -4.586688 -0.30547863 0.19999997
19.002342 -4.6034904 -0.31290287 0.19999993
19.436625 -4.6147456 -0.32332051 0.19999994
19.789595 -4.6127186 -0.32990482 0.19999994
20.18244 -4.6106095 -0.33277991 0.2
20.624758 -4.6150198 -0.33917025 0.20000003
21.055801 -4.5828962 -0.34737498 0.20000002
21.397165 -4.5856028 -0.35604236 0.20000002
21.842409 -4.6227727 -0.36357772 0.2
22.211927 -4.5612917 -0.37803176 0.20000003
22.662357 -4.5705991 -0.38086426 0.20000002
23.010786 -4.6081758 -0.38359687 0.19999997
23.393459 -4.6177649 -0.38465318 0.20000002
23.814222 -4.627696 -0.39236927 0.20000003
24.257223 -4.6247973 -0.39491072 0.2
24.513229 -4.5286193 -0.3995792 0.2
44.196957 -4.7616768 -0.19508414 2.6500001
44.63063 -4.7025833 -0.1803481 0.20000002
44.994312 -4.6627226 -0.1686524 2.0375001
45.412529 -4.6419106 -0.2312565 0.9538461
45.85836 -4.6101727 -0.19815193 0.77647054
46.22221 -4.5917048 -0.21378866 0.20000003
46.597141 -4.6037917 -0.21505724 1.0166665
46.992489 -4.6096363 -0.21077128 0.20000003
47.348442 -4.6039038 -0.20559105 0.20000003
47.849308 -4.6404586 -0.21700086 0.20000002
48.194275 -4.6139903 -0.23467758 0.20000002
48.638607 -4.6470633 -0.22206993 0.2
48.94244 -4.6353283 -0.23726895 0.20000002
49.266251 -4.6610613 -0.22898892 0.2
49.706516 -4.762188 -0.23949544 0.2
59.54298 -4.5226173 -0.20027891 0.2
59.61356 -4.5011334 -0.11057493 0.2
67.057686 -4.7437453 -0.18274295 6.7333336
67.327858 -4.5775852 -0.17034464 5.1000004
67.660004 -4.5868578 -0.22640198 0.2
74.607559 -4.4643631 -0.041905396 0.2
74.853821 -4.4829845 -0.02953545 0.2
-2.1912522 -4.2593927 -0.0077638729 0.2
-1.7804241 -4.1604848 -0.006305641 0.2
-1.4099693 -4.1893315 -0.011899796 0.2
-0.97921932 -4.1813755 -0.0051930477 0.20000002
-0.55983138 -4.2198 -0.0062353304 0.20000002
-0.18535918 -4.1506572 -0.010460746 0.20000003
0.16441977 -4.2254057 -0.010242086 0.20000003
0.54743332 -4.1863627 -0.013259877 0.20000003
0.98061818 -4.2547913 -0.011345087 0.20000003
1.3520546 -4.1953182 -0.01931553 0.20000003
1.777832 -4.1835661 -0.017106544 0.20000002
2.2164104 -4.2082081 -0.022654478 0.20000002
2.5478628 -4.2207851 -0.030550871 0.20000003
3.0036504 -4.163528 -0.034129065 0.20000003
3.4241242 -4.2133374 -0.045585934 0.20000003
3.8130195 -4.1867781 -0.055946499 0.19999999
4.2058315 -4.2298908 -0.061794605 0.20000003
4.5579906 -4.2024555 -0.068481036 0.2
5.01578 -4.2010131 -0.083024867 0.20000003
5.4119101 -4.1698804 -0.088159166 0.19999997
5.829277 -4.1852217 -0.099415973 0.19999997
6.2125201 -4.197526 -0.10682949 0.19999997
6.5983634 -4.2352114 -0.10986912 0.19999997
7.0152135 -4.224997 -0.11756705 0.2
7.42208 -4.2537017 -0.1293093 0.2
7.8280048 -4.1577587 -0.13442676 0.19999994
8.2525864 -4.219748 -0.13905546 0.20000003
8.6250343 -4.2253962 -0.14751127 0.20000003
9.01369 -4.188798 -0.15263326 0.19999999
9.4106483 -4.1776218 -0.1642504 0.20000003
9.7845907 -4.2344089 -0.16969787 0.20000002
10.228247 -4.2177057 -0.17597988 0.20000002
10.607528 -4.186296 -0.18207559 0.20000002
10.994127 -4.2321544 -0.18887347 0.19999996
11.421563 -4.1299491 -0.19356644 0.20000002
11.802417 -4.2121744 -0.19643922 0.2
12.183475 -4.1664057 -0.2046558 0.19999997
12.58247 -4.1778531 -0.21407358 0.19999997
12.964784 -4.1971583 -0.21750464 0.19999996
13.38163 -4.217041 -0.22309054 0.19999996
13.791538 -4.2154794 -0.2337033 0.19999993
14.226646 -4.2177982 -0.24078827 0.19999993
14.607277 -4.2191224 -0.24849971 0.19999996
14.964635 -4.2033806 -0.25504151 0.19999993
15.377213 -4.1828752 -0.26065266 0.19999994
15.754935 -4.1838412 -0.26823917 0.19999994
16.169735 -4.2399063 -0.27691528 0.19999994
16.562145 -4.2240934 -0.28200516 0.2
16.994289 -4.2413702 -0.29067683 0.20000003
17.399355 -4.2179508 -0.29621628 0.19999997
17.828676 -4.2390699 -0.29392225 0.19999996
18.183685 -4.1691699 -0.30791298 0.20000002
18.609911 -4.2001367 -0.31516621 0.2
18.953028 -4.2158666 -0.31531206 0.19999999
19.396173 -4.1610961 -0.31669286 0.20000003
19.810902 -4.1928277 -0.32413018 0.20000003
20.189587 -4.2061872 -0.33066282 0.19999999
20.612551 -4.1983376 -0.33986938 0.20000003
21.017715 -4.2196236 -0.35041261 0.19999999
21.377974 -4.1880546 -0.35670978 0.19999999
21.804766 -4.190558 -0.36092198 0.19999997
22.179132 -4.1780281 -0.37175393 0.20000002
22.575079 -4.1754451 -0.37700233 0.19999999
22.9716 -4.1620421 -0.38324812 0.19999996
23.366766 -4.1983347 -0.39133319 0.20000003
23.780073 -4.1528177 -0.39344892 0.20000003
24.118135 -4.220901 -0.39781305 0.2
24.700832 -4.2484541 -0.39891583 0.2
67.915207 -4.3882937 -0.035411533 0.2
69.720963 -4.173944 -0.0062662056 10
74.304504 -4.0495534 -0.25412518 5.0999999
74.52095 -4.1267796 -0.080172405 2.6499999
-3.6640105 -3.9146094 -0.0033512823 0.2
-3.1934292 -3.7869952 -0.0026637323 0.2
-2.4316137 -3.6975965 -0.0045996835 0.2
-2.1658549 -3.8175073 -0.0096916826 0.20000002
-1.8001561 -3.8331354 -0.011228777 0.2
-1.3947868 -3.861604 -0.010572652 0.2
-1.0123458 -3.7519469 -0.0069740512 0.2
-0.6180228 -3.790801 -0.0073545096 0.20000003
-0.19424172 -3.84568 -0.0084968908 0.20000003
0.26026818 -3.8625467 -0.0063041155 0.20000003
0.59603351 -3.7824655 -0.0079905186 0.20000003
0.99834728 -3.8058505 -0.0094890986 0.20000002
1.4403949 -3.8156412 -0.015339298 0.20000003
1.817907 -3.8341534 -0.017339025 0.20000003
2.1882551 -3.8249409 -0.02411595 0.20000003
2.6181428 -3.8045471 -0.02776034 0.20000003
3.0157897 -3.7676308 -0.043522347 0.20000003
3.394455 -3.8174841 -0.051938444 0.19999996
3.8003318 -3.8238518 -0.057767816 0.20000002
4.2033958 -3.7831566 -0.064042017 0.19999999
4.6297588 -3.8087504 -0.07521829 0.2
5.0027986 -3.7833633 -0.082714453 0.19999996
5.4048247 -3.8228202 -0.090501212 0.19999996
5.8116364 -3.7953482 -0.095707722 0.20000003
6.2084894 -3.8250475 -0.10890082 0.20000003
6.5735774 -3.840199 -0.11074781 0.2
7.0156403 -3.8585775 -0.12046563 0.19999997
7.4018598 -3.8426344 -0.12892491 0.19999997
7.764523 -3.8606274 -0.13465878 0.20000003
8.1992188 -3.7789154 -0.1363163 0.20000003
8.6097708 -3.7878382 -0.14571503 0.2
9.0091162 -3.8182967 -0.15864509 0.20000003
9.4034843 -3.8214896 -0.16250587 0.20000003
9.7925482 -3.814537 -0.16961388 0.19999993
10.230107 -3.7791293 -0.17326061 0.19999996
10.606011 -3.7942474 -0.18002567 0.2
10.972369 -3.7934098 -0.18408093 0.2
11.370228 -3.7943895 -0.19019587 0.19999999
11.779403 -3.8043096 -0.20007834 0.19999997
12.178457 -3.7833645 -0.20859268 0.19999994
12.571066 -3.7643993 -0.21169056 0.19999996
13.00272 -3.7838657 -0.22141732 0.19999996
13.378748 -3.7949805 -0.22909607 0.19999994
13.803965 -3.8074443 -0.23361826 0.19999996
14.182582 -3.7965293 -0.24395688 0.19999996
14.580872 -3.8082054 -0.24936506 0.19999994
14.995439 -3.8101583 -0.25470188 0.19999997
15.398872 -3.801873 -0.26494572 0.19999994
15.814889 -3.7834852 -0.27105072 0.2
16.20097 -3.7800581 -0.28750017 0.19999996
16.605078 -3.8097298 -0.28843653 0.2
16.960234 -3.7577605 -0.30063313 0.20000002
17.399673 -3.8016634 -0.30245966 0.20000003
17.802599 -3.7951589 -0.29325545 0.20000003
18.235189 -3.785048 -0.30042094 0.20000002
18.590479 -3.8093426 -0.30441141 0.20000003
19.002472 -3.8341053 -0.31298357 0.19999996
19.367956 -3.8119452 -0.31726131 0.20000003
19.757072 -3.7986908 -0.32581005 0.20000003
20.199949 -3.7714126 -0.33580324 0.2
20.588448 -3.7726424 -0.33996335 0.19999993
20.979042 -3.795054 -0.34835452 0.19999996
21.409451 -3.7741578 -0.35850278 0.20000003
21.787653 -3.7942102 -0.36684787 0.19999994
22.220749 -3.8004105 -0.37338674 0.20000003
22.618853 -3.7932997 -0.38097739 0.20000002
22.980579 -3.8315401 -0.38610449 0.20000003
23.366182 -3.8231583 -0.39002854 0.20000002
23.730394 -3.8191404 -0.39344263 0.20000003
24.1812 -3.7818589 -0.3946501 0.2
24.652534 -3.7069626 -0.39372677 0.2
60.105736 -3.8433051 -0.25587445 0.2
65.835907 -3.7216692 -0.38833106 5.0999999
66.090065 -3.6673813 -0.37367839 0.2
74.253288 -3.7769737 -0.19444117 2.6499999
74.529007 -3.8988454 -0.035383899 5.0999999
-4.0045786 -3.3220918 -0.0059170155 0.2
-3.7060125 -3.3552547 -0.0054480229 0.2
-3.415554 -3.516216 -0.0042453362 0.2
-3.0027781 -3.362257 -0.01233875 0.2
-2.5466344 -3.3399341 -0.0037297942 0.2
-2.1306515 -3.3790884 -0.003842942 0.2
-1.7448117 -3.4652944 -0.0043586725 0.2
-1.4002661 -3.3793893 -0.0084792925 0.2
-1.0709466 -3.4990451 -0.0049311146 0.2
-0.56345409 -3.3483651 -0.0062186536 0.20000002
-0.1885877 -3.4368098 -0.0052009341 0.20000002
0.22013274 -3.4823813 -0.0079881325 0.2
0.60743922 -3.3974681 -0.0098017054 0.20000003
0.96823925 -3.4325194 -0.0073963604 0.20000003
1.3764923 -3.3952219 -0.014687149 0.20000003
1.7888796 -3.4052384 -0.017556088 0.20000003
2.2334797 -3.4040468 -0.025199713 0.20000003
2.6190209 -3.3793242 -0.03321043 0.19999999
3.0459433 -3.444453 -0.042807251 0.20000002
3.4020066 -3.4028149 -0.051035993 0.20000002
3.8026209 -3.3662491 -0.057527922 0.2
4.198956 -3.4150198 -0.065574117 0.2
4.6081691 -3.4342155 -0.075172737 0.19999997
5.0154781 -3.4093027 -0.084184811 0.2
5.4466429 -3.3981934 -0.088797674 0.19999999
5.8046532 -3.3618927 -0.099463008 0.20000002
6.1919551 -3.4052367 -0.10455594 0.19999997
6.5867786 -3.4314249 -0.1096428 0.19999996
6.9730415 -3.4606826 -0.11978145 0.20000002
7.4213181 -3.4023261 -0.12062833 0.2
7.788383 -3.4393094 -0.12823908 0.20000003
8.1497202 -3.3839972 -0.13883227 0.20000002
8.6153822 -3.3455143 -0.14621454 0.20000003
8.998868 -3.4113128 -0.15809548 0.2
9.4177666 -3.3801212 -0.16022225 0.19999997
9.781086 -3.4315658 -0.16642477 0.2
10.243052 -3.3723114 -0.1752588 0.20000002
10.648417 -3.428081 -0.1824999 0.19999997
11.0177 -3.3508241 -0.19001573 0.19999997
11.393653 -3.4094129 -0.19606125 0.19999996
11.82651 -3.411 -0.20651466 0.19999999
12.215776 -3.4074395 -0.21190859 0.19999996
12.623994 -3.3720741 -0.21838157 0.19999996
12.999821 -3.43659 -0.22399987 0.19999997
13.432482 -3.4064634 -0.2350466 0.19999996
13.814301 -3.4095225 -0.24110426 0.19999996
14.199933 -3.3978217 -0.24972261 0.19999996
14.595253 -3.4086039 -0.25782165 0.19999993
14.986939 -3.4467752 -0.26315695 0.19999997
15.397519 -3.4241455 -0.2661989 0.19999996
15.804863 -3.397284 -0.27200103 0.20000002
16.174952 -3.3282657 -0.27354804 0.19999997
16.561707 -3.4049459 -0.27728465 0.19999996
16.993843 -3.4194293 -0.28808749 0.20000003
17.412996 -3.428215 -0.29584789 0.19999996
17.793562 -3.4171579 -0.29522434 0.20000003
18.181141 -3.3921432 -0.30336359 0.19999997
18.635424 -3.3740914 -0.30442348 0.20000003
18.990919 -3.3961947 -0.30992615 0.2
19.405264 -3.3856871 -0.3176057 0.20000003
19.802902 -3.416069 -0.33178738 0.19999996
20.165648 -3.3858881 -0.33642948 0.19999997
20.573912 -3.4424305 -0.3459447 0.20000002
20.970814 -3.4071841 -0.35375077 0.19999996
21.399887 -3.4119792 -0.36008364 0.19999997
21.809988 -3.373045 -0.36698255 0.2
22.19985 -3.4078188 -0.37449455 0.19999997
22.602839 -3.4000134 -0.38228217 0.20000002
23.016726 -3.3686283 -0.38906026 0.20000003
23.396902 -3.3780227 -0.39302257 0.20000003
23.787167 -3.5011115 -0.39333525 0.2
24.131996 -3.4319935 -0.39524469 0.2
60.070084 -3.413661 -0.011557175 0.2
65.583282 -3.4323046 -0.37919223 5.0999999
65.722626 -3.4809203 -0.29858363 0.2
73.96257 -3.2770805 -0.34384942 0.2
74.12545 -3.4505022 -0.26406562 0.2
74.536171 -3.4769418 -0.0060548731 0.2
-4.0323348 -3.0021758 -0.0043574888 0.2
-3.7437799 -3.065279 -0.0042616776 0.2
-3.2886844 -3.0140877 -0.0028441993 0.2
-2.9813554 -2.9755707 -0.0037301965 0.2
-2.5696208 -2.9309592 -0.0011023897 0.2
-2.2022178 -2.9793289 -0.0048934519 0.2
-1.7953806 -3.0029616 -0.004303202 0.20000002
-1.4790871 -2.9456398 -0.0059923897 0.2
-0.93565536 -2.9805417 -0.0057373499 0.20000002
-0.64756399 -3.0635858 -0.0065077702 0.20000002
-0.17083931 -3.0175655 -0.0072755148 0.20000003
0.19805627 -2.9948595 -0.0078181159 0.20000003
0.59859574 -3.0062418 -0.010081808 0.20000002
0.96560413 -2.9946249 -0.0081455372 0.20000003
1.4042869 -3.0170527 -0.014587338 0.20000003
1.786034 -3.0032165 -0.020432377 0.20000003
2.1815376 -3.0181322 -0.024553372 0.20000003
2.5943754 -3.0037515 -0.031770986 0.20000003
2.9790049 -3.0226026 -0.046141565 0.19999997
3.4084547 -2.9959204 -0.051105205 0.19999994
3.8275132 -2.9966192 -0.057826217 0.2
4.197691 -3.0205369 -0.066832989 0.2
4.6084952 -2.9959638 -0.074774526 0.19999996
4.9986734 -3.0043943 -0.08375296 0.2
5.4096761 -2.9864054 -0.089641958 0.19999997
5.8067183 -2.9923394 -0.097136296 0.19999999
6.2266479 -3.0147657 -0.10379408 0.19999996
6.6168909 -2.9927516 -0.1096714 0.20000003
7.0449467 -3.0281301 -0.11741053 0.20000002
7.4252667 -2.9855874 -0.12742634 0.19999996
7.8354769 -3.0034366 -0.13591707 0.2
8.2076197 -2.9728286 -0.1434225 0.2
8.5994482 -2.9956203 -0.14888108 0.19999997
8.9873219 -2.9997382 -0.15466008 0.19999997
9.4157038 -3.0271535 -0.15963037 0.19999994
9.8577299 -3.0170057 -0.16741678 0.20000003
10.246634 -3.0211725 -0.17469513 0.2
10.61283 -3.0055997 -0.18355212 0.19999997
11.027303 -2.9783132 -0.18988511 0.20000002
11.434755 -2.992703 -0.19925879 0.19999997
11.81882 -2.9786029 -0.2069446 0.19999996
12.225861 -2.9993758 -0.21038333 0.19999997
12.631495 -2.9986739 -0.21776089 0.19999994
13.028691 -3.0030494 -0.22623536 0.19999991
13.404086 -3.0356174 -0.22903237 0.2
13.773657 -3.0464575 -0.23868904 0.19999997
14.174398 -3.0015807 -0.24715577 0.2
14.573971 -3.0207784 -0.2530798 0.19999994
14.928128 -2.9737463 -0.25746942 0.20000003
15.374897 -3.0282111 -0.26118702 0.19999997
15.802036 -2.9882963 -0.26606032 0.19999999
16.232693 -2.9735565 -0.27432975 0.19999997
16.595066 -2.9451673 -0.28088924 0.19999997
16.979908 -2.9981833 -0.2926915 0.19999999
17.398424 -2.9922183 -0.29556349 0.19999994
17.804174 -3.0014353 -0.29410669 0.19999999
18.197544 -2.9925289 -0.3003253 0.19999994
18.607094 -3.0283446 -0.30599019 0.19999999
19.018503 -2.9543381 -0.31560084 0.20000003
19.399809 -2.987839 -0.32554936 0.19999994
19.815369 -2.9837706 -0.33092815 0.19999994
20.190704 -3.0045359 -0.34116003 0.19999997
20.608263 -2.9587538 -0.34716937 0.19999997
20.997784 -2.9893088 -0.35255769 0.19999996
21.417976 -2.9975789 -0.3633866 0.19999996
21.810486 -2.9831245 -0.36680132 0.20000002
22.219635 -2.9968626 -0.37760755 0.20000003
22.598682 -3.0050478 -0.38267151 0.20000003
23.010702 -2.9973073 -0.38944772 0.20000003
23.442694 -3.0255239 -0.39442608 0.20000003
23.792526 -2.97086 -0.39349604 0.20000002
24.396229 -2.8002188 -0.39470845 0.2
65.527672 -2.9747753 -0.31668928 3.1399999
65.605469 -3.0256567 -0.29324973 0.2
-4.0708632 -2.5143917 -0.012091597 0.2
-3.7591016 -2.6051919 -0.011480405 0.2
-3.3846574 -2.5223203 -0.0059268326 0.2
-3.036283 -2.6651409 -0.0049059959 0.2
-2.6277757 -2.5620313 -0.010455096 0.20000002
-2.1378372 -2.5718236 -0.0069158878 0.20000003
-1.7899506 -2.6594212 -0.0057485001 0.20000002
-1.3648423 -2.5733726 -0.0070343204 0.20000003
-0.91443789 -2.5087621 -0.0060146195 0.2
-0.53117728 -2.5591218 -0.0027258147 0.20000002
-0.16425587 -2.6103323 -0.0082901595 0.2
0.23693646 -2.5639782 -0.010283904 0.20000002
0.61099792 -2.6100719 -0.0095224911 0.20000003
1.0022161 -2.6037662 -0.012461551 0.20000003
1.4074342 -2.6354229 -0.017062103 0.20000002
1.7866884 -2.6259704 -0.019870935 0.20000003
2.1908538 -2.5846734 -0.028985139 0.20000002
2.6401992 -2.5828464 -0.039986402 0.20000002
2.979121 -2.6113389 -0.044633251 0.19999999
3.4245613 -2.6052997 -0.053233389 0.19999999
3.823637 -2.6287189 -0.059976816 0.2
4.2579451 -2.6064506 -0.068750016 0.2
4.6121159 -2.629374 -0.07777454 0.19999997
5.0034618 -2.6377161 -0.083277218 0.2
5.4096031 -2.6263964 -0.092068136 0.19999996
5.8221507 -2.6140666 -0.095387317 0.20000003
6.2260399 -2.5902121 -0.10310853 0.20000003
6.6210551 -2.5966256 -0.10914468 0.2
7.0137248 -2.5823181 -0.11730575 0.2
7.375041 -2.6354268 -0.12707482 0.2
7.8100305 -2.6276009 -0.1363859 0.20000003
8.2472038 -2.5720265 -0.14373989 0.2
8.5956945 -2.6117373 -0.15195838 0.19999999
9.0105648 -2.568337 -0.15688494 0.20000002
9.4135485 -2.5921226 -0.16285466 0.19999999
9.7722607 -2.5947001 -0.16804816 0.2
10.240344 -2.5689442 -0.17769992 0.19999997
10.639567 -2.5341768 -0.18769786 0.20000002
10.978266 -2.5767407 -0.19321685 0.19999999
11.401435 -2.6050777 -0.19702479 0.19999996
11.80268 -2.5520828 -0.20925072 0.20000002
12.195026 -2.6223576 -0.20883305 0.19999997
12.61641 -2.5893395 -0.22066396 0.2
12.996769 -2.5819874 -0.22712594 0.20000003
13.429238 -2.5866125 -0.23659982 0.20000003
13.776209 -2.6330941 -0.24540253 0.20000003
14.211601 -2.5958655 -0.2509999 0.19999996
14.569951 -2.620677 -0.25479087 0.20000003
14.98816 -2.6279585 -0.25873533 0.20000003
15.387237 -2.5901856 -0.26119193 0.19999999
15.804529 -2.555866 -0.26818767 0.19999993
16.230116 -2.5760336 -0.27396822 0.19999991
16.629889 -2.548429 -0.28322929 0.20000003
17.028936 -2.7138062 -0.29478654 0.20000003
17.433645 -2.6333041 -0.29380965 0.20000002
17.810669 -2.6036479 -0.2936857 0.19999996
18.241386 -2.571243 -0.30416596 0.19999996
18.628168 -2.6124735 -0.31045094 0.19999999
19.025156 -2.5847342 -0.31752166 0.19999993
19.413858 -2.6029856 -0.32345429 0.19999996
19.754358 -2.5733428 -0.3290135 0.20000003
20.198559 -2.5829415 -0.34053409 0.2
20.601025 -2.6455417 -0.35218707 0.20000003
21.031988 -2.6279087 -0.35828617 0.20000003
21.372452 -2.6322134 -0.35997775 0.2
21.835707 -2.5893085 -0.36861351 0.19999999
22.201082 -2.5684888 -0.37552524 0.19999999
22.572336 -2.6149545 -0.38051379 0.20000003
22.958277 -2.591172 -0.38766801 0.20000002
23.389128 -2.6229136 -0.3918227 0.20000003
23.739595 -2.5063028 -0.39067045 0.20000002
24.172396 -2.4839151 -0.39360684 0.2
24.417521 -2.5730546 -0.39870951 0.2
62.045166 -2.6046267 -0.045216896 0.2
65.526138 -2.6662099 -0.33713242 3.4666665
65.699532 -2.6586053 -0.23794299 0.2
-3.832376 -2.1461608 -0.0097109582 0.2
-3.4213278 -2.2013619 -0.010471386 0.20000002
-3.0385365 -2.1737523 -0.0099965716 0.20000002
-2.6360345 -2.1545811 -0.01456413 0.2
-2.2489262 -2.1976595 -0.0089290133 0.20000002
-1.8660247 -2.2321181 -0.0070219361 0.20000002
-1.3889904 -2.2062683 -0.0048590614 0.20000003
-0.99275112 -2.200129 -0.0081126019 0.20000002
-0.55656505 -2.2333941 -0.0040490804 0.20000002
-0.16999078 -2.1859522 -0.0032044023 0.20000002
0.18803324 -2.1838825 -0.011057802 0.20000002
0.59066868 -2.2035532 -0.0083330888 0.20000003
1.0264151 -2.2326076 -0.010051384 0.20000003
1.406016 -2.2021477 -0.015801335 0.20000003
1.8330481 -2.2335088 -0.023310933 0.20000003
2.2522078 -2.2200735 -0.028702859 0.20000003
2.5947011 -2.1699314 -0.03680785 0.20000003
2.9777508 -2.2189829 -0.047830053 0.19999996
3.406888 -2.1942863 -0.054028399 0.20000003
3.8322957 -2.218008 -0.059402164 0.2
4.2061024 -2.2034879 -0.068637364 0.19999996
4.5842042 -2.225214 -0.074036404 0.19999999
5.0093708 -2.240618 -0.084963366 0.19999999
5.407176 -2.1863878 -0.088578157 0.19999999
5.7862077 -2.1977406 -0.094974093 0.19999999
6.1925297 -2.2169747 -0.10076461 0.19999999
6.5858898 -2.2478235 -0.10758167 0.2
7.022212 -2.1963141 -0.11998 0.20000003
7.4129753 -2.211416 -0.12877628 0.19999999
7.7674255 -2.2146418 -0.13914038 0.2
8.1743059 -2.2397876 -0.14490107 0.20000002
8.5808563 -2.2138584 -0.14974396 0.20000002
8.9963045 -2.2010331 -0.15778697 0.19999999
9.4025631 -2.211868 -0.16709386 0.2
9.8081341 -2.1840434 -0.17426926 0.19999999
10.202162 -2.2075429 -0.17890154 0.19999999
10.575848 -2.1761665 -0.18787663 0.19999996
11.000478 -2.2165978 -0.19199516 0.19999996
11.448971 -2.2183442 -0.19663589 0.19999997
11.837491 -2.1931543 -0.20427796 0.20000003
12.217855 -2.2277932 -0.21787725 0.2
12.581664 -2.1895063 -0.22474962 0.19999999
12.996972 -2.1581476 -0.23098975 0.20000003
13.394454 -2.2039714 -0.23897336 0.2
13.81974 -2.242856 -0.24829593 0.20000003
14.256537 -2.2181079 -0.25074592 0.19999997
14.632055 -2.1895444 -0.24938719 0.19999997
15.010428 -2.2412798 -0.25491324 0.19999994
15.439604 -2.2004468 -0.26341364 0.19999993
15.846238 -2.1642375 -0.26834708 0.19999996
16.23173 -2.1679883 -0.27438027 0.20000002
16.545727 -2.1978612 -0.27666512 0.20000002
17.014193 -2.2104924 -0.29230678 0.20000003
17.442343 -2.200568 -0.29798469 0.19999997
17.833773 -2.2307131 -0.29840276 0.2
18.204008 -2.211616 -0.30714548 0.19999999
18.628033 -2.2016695 -0.31283933 0.19999996
19.005875 -2.242445 -0.32246089 0.19999999
19.43247 -2.1904244 -0.329694 0.2
19.806047 -2.2518809 -0.33717442 0.19999999
20.231064 -2.1959398 -0.34371084 0.20000002
20.609308 -2.1848607 -0.34916133 0.2
20.965082 -2.1871555 -0.3571744 0.19999999
21.386227 -2.1924002 -0.36354879 0.2
21.789211 -2.1802864 -0.37188718 0.20000002
22.186554 -2.2196398 -0.37916675 0.20000002
22.561949 -2.2024367 -0.38294801 0.2
22.984386 -2.220927 -0.38458312 0.20000003
23.409513 -2.2051609 -0.38879442 0.20000003
23.792612 -2.1939433 -0.39338923 0.20000003
24.211626 -2.1720262 -0.39483896 0.2
24.540255 -2.2203951 -0.39562574 0.2
25.05158 -2.3437631 -0.39394474 0.2
25.382557 -2.2882321 -0.39537489 0.2
25.676109 -2.2251654 -0.39935988 0.2
65.973167 -2.2011127 -0.29491043 5.0999999
66.268303 -2.1132641 -0.35824433 0.2
-4.4127173 -1.6003205 -0.012900334 0.2
-3.8522654 -1.80378 -0.0064942227 0.2
-3.4352663 -1.8523465 -0.012105764 0.2
-2.9579346 -1.7837479 -0.010217582 0.20000003
-2.5366366 -1.6751524 -0.01428279 0.2
-2.1784308 -1.797482 -0.0085335523 0.20000003
-1.7960963 -1.8030663 -0.00645258 0.20000003
-1.3960111 -1.797653 -0.0045683449 0.2
-0.99732864 -1.7975767 -0.0023080977 0.20000002
-0.56970674 -1.8294889 -0.0058638635 0.2
-0.1535719 -1.7670029 -0.0026700664 0.2
0.10318895 -1.8270706 -0.0083931368 0.2
0.62934494 -1.812075 -0.0087171104 0.20000003
0.99951661 -1.8576504 -0.011113 0.20000003
1.3947073 -1.819832 -0.014483134 0.20000003
1.7814163 -1.8011626 -0.022526389 0.20000003
2.1628425 -1.791576 -0.030163405 0.2
2.6218235 -1.790938 -0.041458387 0.20000003
2.9839878 -1.7838656 -0.046653565 0.19999996
3.4060431 -1.7959169 -0.054065701 0.19999994
3.7864566 -1.7889891 -0.063549705 0.19999996
4.2382874 -1.8091695 -0.071608596 0.19999997
4.5996089 -1.8300861 -0.078392722 0.19999999
5.0147877 -1.8372946 -0.08395797 0.19999997
5.4150157 -1.8079937 -0.089944124 0.2
5.823925 -1.8279699 -0.097563282 0.20000003
6.2158518 -1.8161039 -0.10524531 0.20000002
6.630167 -1.8045443 -0.11565928 0.19999999
7.0273919 -1.7796358 -0.1271763 0.20000002
7.4070997 -1.8248724 -0.13359791 0.20000002
7.8136706 -1.8070471 -0.13737036 0.20000002
8.1992025 -1.8271688 -0.14633086 0.20000002
8.6044664 -1.8284272 -0.15102032 0.20000003
9.013464 -1.8120999 -0.15938359 0.20000003
9.4198895 -1.7762158 -0.16507657 0.20000003
9.772831 -1.7442205 -0.17156413 0.20000003
10.176991 -1.8336803 -0.18099272 0.20000002
10.599131 -1.8022653 -0.1854088 0.19999996
11.019965 -1.7921386 -0.19659166 0.2
11.446847 -1.7613893 -0.20474875 0.20000003
11.810016 -1.7857352 -0.21079695 0.20000003
12.181667 -1.8363427 -0.21892832 0.2
12.585032 -1.7591892 -0.22796983 0.20000002
12.985025 -1.789289 -0.23770811 0.2
13.37872 -1.78877 -0.23837385 0.19999999
13.840658 -1.8282205 -0.24317971 0.19999999
14.222529 -1.7860869 -0.24613263 0.19999996
14.624722 -1.8170592 -0.25276276 0.19999997
14.97227 -1.8112624 -0.25842214 0.19999996
15.381997 -1.7995267 -0.26082721 0.19999993
15.760248 -1.7858981 -0.27041656 0.19999997
16.161812 -1.7625854 -0.27657023 0.19999999
16.591413 -1.8342577 -0.2817004 0.19999997
17.007668 -1.8081844 -0.29228324 0.20000003
17.41733 -1.8030614 -0.29770607 0.19999997
17.771257 -1.7812445 -0.30017307 0.19999997
18.160042 -1.8414494 -0.30697969 0.2
18.594481 -1.8220921 -0.31424487 0.2
18.975962 -1.7907552 -0.32221764 0.19999999
19.410902 -1.739674 -0.33177435 0.20000002
19.830395 -1.7900541 -0.33819574 0.20000002
20.185806 -1.7772421 -0.34580386 0.20000003
20.602133 -1.7895399 -0.35273314 0.20000002
21.020184 -1.817148 -0.36012688 0.20000003
21.40951 -1.8012115 -0.36705884 0.20000003
21.798594 -1.8143454 -0.36926919 0.20000003
22.190914 -1.8209116 -0.37795791 0.20000003
22.583086 -1.8191609 -0.38246092 0.20000003
22.963612 -1.7936521 -0.38604489 0.20000003
23.411188 -1.81361 -0.3917526 0.20000003
23.788568 -1.768942 -0.38955745 0.2
24.09584 -1.8381696 -0.39488062 0.2
25.336948 -1.6234894 -0.39887995 0.2
60.339993 -1.9920362 -0.35191575 0.2
60.456703 -1.883563 -0.092215702 0.2
62.433445 -1.7693533 -0.10020842 0.2
66.647186 -1.9190345 -0.03540767 10
66.965668 -1.7336826 -0.32295191 0.2
-4.5454693 -1.3769755 -0.0095169852 0.2
-3.7172217 -1.5062165 -0.014678933 0.2
-3.4245403 -1.4216185 -0.0092964787 0.2
-3.0798514 -1.3733978 -0.010955772 0.20000002
-2.6244009 -1.3324952 -0.013243847 0.2
-2.1478469 -1.3511733 -0.009094974 0.2
-1.7877609 -1.4335427 -0.0099826735 0.20000003
-1.4385104 -1.3764977 -0.0059748162 0.20000003
-1.0375153 -1.4526577 -0.016039057 0.20000002
-0.64777189 -1.423031 -0.0068452829 0.2
-0.20344083 -1.3194786 -0.011279986 0.20000002
0.23482652 -1.4089409 -0.006185859 0.20000002
0.62090224 -1.4214886 -0.014288457 0.20000002
0.99234957 -1.4128559 -0.014892251 0.20000003
1.42108 -1.401397 -0.017704993 0.20000003
1.7690183 -1.4027957 -0.020697733 0.20000003
2.1970854 -1.3781973 -0.027058987 0.20000003
2.6328955 -1.3750068 -0.043222643 0.20000003
3.0169063 -1.4377255 -0.04678924 0.20000003
3.3913708 -1.4192027 -0.057926383 0.19999999
3.8293998 -1.4440926 -0.066362709 0.2
4.2076297 -1.3892246 -0.070797414 0.2
4.6067691 -1.4525632 -0.074783169 0.19999999
5.027494 -1.4092965 -0.084491178 0.19999999
5.4014912 -1.417735 -0.090528451 0.19999999
5.800107 -1.4201423 -0.09780892 0.2
6.1742206 -1.4270533 -0.10683868 0.20000003
6.5772386 -1.4057146 -0.11497901 0.19999996
7.0259089 -1.453583 -0.12567532 0.20000003
7.4491057 -1.4238348 -0.13219295 0.20000003
7.8306355 -1.3842769 -0.13868009 0.20000003
8.2013216 -1.4187026 -0.14426835 0.19999999
8.5581331 -1.4168093 -0.14901634 0.20000003
9.0076075 -1.3912579 -0.16023117 0.20000003
9.4289217 -1.431585 -0.17122521 0.20000003
9.7942762 -1.3583159 -0.17496854 0.20000003
10.249575 -1.4051555 -0.18205148 0.20000002
10.597129 -1.3830085 -0.19311817 0.20000002
11.013357 -1.4197923 -0.19733207 0.20000003
11.383583 -1.3745857 -0.20549969 0.2
11.779447 -1.4026489 -0.21062107 0.2
12.187124 -1.4065644 -0.21889201 0.20000003
12.622866 -1.4295739 -0.2260038 0.20000002
13.040464 -1.3747989 -0.23528574 0.19999997
13.411651 -1.3618025 -0.23720862 0.2
13.818001 -1.3809012 -0.24392644 0.19999999
14.166157 -1.3963282 -0.24904794 0.19999996
14.59114 -1.3865663 -0.25410482 0.19999994
15.023434 -1.3821034 -0.25965366 0.19999999
15.374037 -1.388773 -0.26399601 0.20000003
15.756979 -1.4014145 -0.27446237 0.20000003
16.179853 -1.3603312 -0.27737889 0.19999993
16.566906 -1.4664395 -0.28140616 0.19999997
16.997923 -1.3963212 -0.29566446 0.20000003
17.447897 -1.4251146 -0.30147654 0.20000002
17.805637 -1.3849455 -0.30103737 0.20000002
18.192652 -1.3836739 -0.31105453 0.19999994
18.636114 -1.4297096 -0.31884509 0.20000003
18.994043 -1.4154472 -0.32431582 0.19999994
19.434427 -1.4061785 -0.33332837 0.20000002
19.821007 -1.3869879 -0.34103322 0.19999999
20.220335 -1.4252008 -0.34402201 0.20000002
20.560402 -1.3808208 -0.34967378 0.2
20.971991 -1.400892 -0.36072671 0.2
21.411753 -1.35672 -0.3674348 0.19999997
21.791615 -1.4236926 -0.37296349 0.20000003
22.181673 -1.3817935 -0.37911087 0.20000003
22.582743 -1.3772259 -0.37950498 0.20000003
22.998405 -1.3634981 -0.38824186 0.20000003
23.407478 -1.4082845 -0.39081264 0.20000003
23.780987 -1.4821482 -0.39236978 0.20000002
24.114193 -1.4302863 -0.39414304 0.20000002
24.584305 -1.5320616 -0.38947356 0.2
25.094662 -1.5534527 -0.39176247 0.2
25.55999 -1.5840187 -0.39542958 0.2
59.936768 -1.4976753 -0.060811341 0.2
60.047955 -1.3104104 -0.11998198 0.2
67.363419 -1.5769694 -0.34366912 0.2
67.656853 -1.432434 -0.37844041 0.2
68.191681 -1.2046638 -0.11706542 0.2
-4.5325956 -0.84368622 -0.00096528907 0.2
-3.3694744 -0.99873817 -0.0077836849 0.2
